# .PCD v0.7 - Point Cloud Data file format
VERSION 0.7
FIELDS x y z
SIZE 4 4 4
TYPE F F F
COUNT 1 1 1
WIDTH 1547
HEIGHT 1
VIEWPOINT 0 0 0 1 0 0 0
POINTS 1547
DATA ascii
1.3611161 -1.3004277 270.35468
1.4446592 -1.3000666 270.2764
1.5623947 -1.285633 270.17902
3.0890615 -1.3888062 270.21811
3.2980776 -1.2858367 270.31918
3.4580839 -1.3072234 270.38382
3.6261442 -1.2967118 270.44586
3.7474582 -1.292612 270.49744
3.8562515 -1.2375771 270.55746
5.8275523 -1.3049585 270.45483
5.9682169 -1.2903781 270.36966
6.1104417 -1.3228182 270.28296
6.2042418 -1.3017533 270.21082
6.3574491 -1.3917068 270.14117
8.3573561 -1.3545299 270.26483
8.4634218 -1.2899959 270.31219
8.5415506 -1.2956262 270.43585
1.1445497 -0.97499156 270.39621
1.318859 -1.0959513 270.34204
1.4774194 -1.106388 270.2341
1.5629677 -1.075701 270.19098
2.7575562 -1.029379 270.21326
2.9055166 -1.0592532 270.25851
3.1007621 -1.0920702 270.32532
3.2589951 -1.1532491 270.33929
3.4665794 -1.1932917 270.37674
3.6007018 -1.2221789 270.42947
3.7387421 -1.1832652 270.49698
5.6705575 -1.1569805 270.5314
5.7801933 -1.1192141 270.46274
5.9526868 -1.0875243 270.37109
6.0933557 -1.1011937 270.27551
6.1858983 -1.116576 270.20721
8.5363522 -1.1348848 270.30389
8.5984144 -1.0471357 270.35852
1.0171553 -0.85995775 270.42755
1.1465786 -0.88073802 270.38562
1.3099318 -0.90128493 270.33041
1.4944022 -0.91618645 270.24603
1.6131315 -0.86893648 270.21347
2.3160276 -0.80835187 270.18573
2.5366652 -0.85050327 270.24124
2.7140901 -0.88870293 270.3161
2.8767045 -0.97671247 270.31448
3.0103192 -1.0029669 270.35202
5.8287368 -0.92107737 270.46243
5.9502578 -0.94931513 270.37979
6.0839176 -0.88560581 270.27896
6.1869664 -0.82416403 270.19592
8.5725889 -0.92307007 270.27133
8.6128016 -0.89916056 270.3233
0.97043306 -0.74667233 270.43991
1.1341056 -0.70144951 270.3707
1.3027464 -0.6922943 270.32071
1.4958668 -0.66151327 270.28131
1.6794858 -0.64695102 270.2475
1.8893836 -0.60503513 270.23828
2.1114619 -0.60802156 270.24033
2.3094594 -0.6498192 270.28363
2.4867299 -0.74709111 270.30823
2.6524062 -0.80957597 270.38684
5.8031054 -0.79035121 270.48712
5.9636374 -0.7632888 270.38934
6.0796895 -0.69554055 270.2919
6.1756225 -0.69743758 270.20782
8.6146393 -0.67380935 270.23828
8.6532698 -0.68212807 270.31726
1.1434624 -0.50458246 270.36496
1.3013674 -0.50555372 270.31271
1.4926538 -0.50201046 270.27722
1.6874665 -0.49265188 270.26434
1.8907236 -0.48779285 270.26105
2.0866709 -0.49658999 270.27322
2.2864745 -0.50559306 270.34656
5.9686742 -0.48199472 270.34781
6.062851 -0.50441992 270.26263
6.159584 -0.53390729 270.18903
8.6146736 -0.57887816 270.20544
8.6716452 -0.49801639 270.29083
0.73208648 -0.17928109 270.47153
0.93846148 -0.27931234 270.39178
1.1000681 -0.27991331 270.32874
1.3059906 -0.32256761 270.28076
1.4957718 -0.33086509 270.254
1.6975982 -0.3500337 270.24161
1.8982273 -0.33301139 270.25467
2.0994678 -0.30105788 270.27057
2.2913406 -0.28681183 270.32925
2.4847252 -0.24334094 270.40051
5.8492684 -0.28320959 270.43655
5.9580407 -0.29661888 270.34103
6.0688801 -0.38269567 270.24942
8.7113647 -0.30399552 270.31631
8.7455502 -0.30881098 270.38019
0.60798705 -0.061660111 270.47861
0.76867414 -0.076884098 270.40173
0.91561401 -0.084848978 270.34802
1.0726374 -0.07373897 270.27921
1.2522391 -0.065628298 270.22894
1.571312 -0.15191366 270.2019
1.6751401 -0.1259571 270.19086
1.9220642 -0.16900036 270.21039
2.1363902 -0.095293328 270.25336
2.2987218 -0.090640686 270.28891
2.4850166 -0.080763437 270.36584
2.6559262 -0.014809353 270.42334
2.7703269 -0.027803538 270.47433
5.8517723 -0.17616822 270.44037
5.9675293 -0.10503916 270.34375
6.1002278 -0.098460913 270.24432
8.6959667 -0.098867252 270.29446
0.61366987 0.16409913 270.44125
0.72339118 0.14494142 270.39334
0.90711552 0.10901824 270.30991
1.0784436 0.095094517 270.24573
1.2840828 0.10109105 270.16861
1.4181334 0.09489432 270.13632
1.9531676 0.10034744 270.18008
2.1329286 0.093257211 270.21777
2.3428996 0.11790933 270.28503
2.48769 0.10358141 270.34189
2.6227448 0.084587879 270.41052
2.7382622 0.090882555 270.46268
5.8702087 -0.0079570329 270.46555
5.9879785 0.0092105418 270.37695
6.1083031 0.055318251 270.33759
6.2948103 0.15007949 270.26828
6.4049854 0.20450254 270.2662
8.6846447 0.074991629 270.306
8.748312 0.033947997 270.39514
0.61005199 0.29567039 270.45306
0.74371892 0.31021464 270.39816
0.91543674 0.30537608 270.31781
1.0878197 0.29585049 270.25906
1.3047616 0.29248017 270.18756
1.5719941 0.29465353 270.16443
1.6040843 0.3004427 270.16559
1.9560307 0.34979454 270.23196
2.12078 0.31469935 270.26303
2.3030636 0.30084592 270.32053
2.4802086 0.24766819 270.37527
2.6670828 0.1784668 270.43954
6.3242431 0.21916294 270.34595
6.5152397 0.28202629 270.30145
6.7039595 0.33400464 270.25537
6.8307843 0.39863375 270.28552
8.5285034 0.34749544 270.29568
8.6367445 0.25655413 270.34692
0.57659858 0.41803107 270.48349
0.76141953 0.45304608 270.40085
0.91234374 0.48981577 270.34601
1.1045297 0.51771921 270.26984
1.296833 0.55892003 270.25372
1.4932448 0.56295139 270.24579
1.7025114 0.51839876 270.24265
1.8938918 0.5018338 270.26398
2.1024044 0.48059735 270.31509
2.2868118 0.48202947 270.36456
2.4168236 0.42018527 270.40012
6.746501 0.40790823 270.34271
6.916358 0.45675761 270.31732
7.0926876 0.51117438 270.29861
7.2675915 0.57062924 270.30936
7.476356 0.57726979 270.22815
7.9275527 0.60713059 270.23505
8.1454754 0.56592 270.23737
8.3108559 0.5320636 270.26443
8.4991484 0.45875201 270.33691
0.91444004 0.67224091 270.34579
1.0784523 0.68330026 270.28702
1.3147461 0.69461101 270.25305
1.5106102 0.69363117 270.25745
1.690504 0.69222736 270.27393
1.8978369 0.68745005 270.30246
2.1034539 0.63983119 270.33621
2.2854893 0.61977899 270.39331
7.180934 0.57855058 270.38046
7.3082929 0.59736192 270.33878
7.4917126 0.61402965 270.31271
7.713233 0.64810961 270.30835
7.9056878 0.66706932 270.32349
8.1208477 0.67395335 270.34647
8.3003187 0.67562282 270.39154
8.4148903 0.60727847 270.38623
8.5507717 0.62443876 270.48694
0.23206182 1.0446253 270.49887
0.33456352 1.025478 270.45288
0.4877502 0.97138864 270.41925
0.73720044 0.93683797 270.34015
0.89887565 0.89462632 270.32022
1.1048813 0.88323879 270.25955
1.2906452 0.88218838 270.24554
1.4955562 0.87673485 270.24533
1.7010561 0.87633979 270.25339
1.8957313 0.89908779 270.27457
2.0941513 0.9162761 270.3089
2.2865124 0.93217432 270.37335
2.4584334 0.95939362 270.42465
2.6513171 1.02703 270.4938
8.1544199 0.80407745 270.47244
8.2789021 0.78399515 270.46158
8.4212685 0.81699365 270.52097
0.079332493 1.1724261 270.51718
0.21666659 1.1071531 270.47781
0.34028745 1.1439174 270.41766
0.50564164 1.1357712 270.36185
0.67923546 1.1247425 270.3161
0.89192879 1.077286 270.27573
1.088203 1.1161023 270.20837
1.3069136 1.0570822 270.21774
1.4646072 1.0990703 270.20358
1.7423 1.1006202 270.22046
1.8730962 1.0667727 270.25375
2.1069155 1.0904406 270.30084
2.2919092 1.1103976 270.34354
2.4518292 1.1133183 270.40768
2.6585104 1.1401044 270.49347
0.19204892 1.3004208 270.4678
0.33363649 1.2994797 270.41428
0.50405002 1.3068402 270.34232
0.69536102 1.3214132 270.28372
0.91528237 1.3237829 270.23602
1.0884913 1.3257554 270.20718
1.3080664 1.3209982 270.21213
1.4850953 1.3571066 270.242
1.6868165 1.3203716 270.2392
1.8904581 1.3236681 270.28372
2.0858185 1.3067011 270.31897
2.2891567 1.2935621 270.37115
2.4498 1.2725719 270.4267
2.7500243 1.1737192 270.5397
0.24261026 1.3862584 270.46045
0.34968403 1.4482089 270.4267
0.51843482 1.4746042 270.37347
0.69409543 1.4966637 270.32596
0.92493623 1.508857 270.27188
1.0798804 1.5139472 270.26038
1.3190187 1.5044926 270.27121
1.4964114 1.5066538 270.29688
1.6877073 1.4761969 270.31973
1.8831387 1.460335 270.34537
2.0729985 1.4291186 270.38187
2.2430604 1.4062796 270.42325
2.4163771 1.3656533 270.46259
0.38637578 1.548923 270.45605
0.53965682 1.5833386 270.39618
0.72017109 1.6458873 270.36432
0.90843737 1.6443169 270.31952
1.1005878 1.6722096 270.32361
1.2938781 1.6685958 270.3251
1.4983042 1.6591876 270.35165
1.6880963 1.6228812 270.37994
1.818132 1.5929776 270.39999
0.93206859 1.9088616 270.44678
1.1160414 1.8679994 270.40192
1.2445416 1.8633949 270.39816
1.4953902 1.8854541 270.43646
1.668988 1.8261143 270.46585
0.99526983 2.0429595 270.5036
1.1484565 2.0387182 270.46976
1.3215781 2.073257 270.47452
1.4703203 2.0850918 270.49524
1.6735443 2.0697026 270.53726
1.7477309 2.0486131 270.54483
2.7576613 -14.110212 270.58826
2.9510167 -14.175445 270.60571
3.066705 -14.193739 270.60541
3.3390174 -14.180913 270.56207
3.5203142 -14.213471 270.55798
3.7060239 -14.222948 270.5274
3.8911068 -14.256608 270.55371
4.0964804 -14.240662 270.53775
4.2985425 -14.228203 270.51944
4.5055838 -14.229712 270.55026
4.6900158 -14.233197 270.57147
4.8945541 -14.223748 270.56064
5.1094151 -14.239143 270.57898
5.3262234 -14.230005 270.56799
5.4745002 -14.235816 270.56891
5.7339258 -14.221474 270.53925
5.9126806 -14.242692 270.56052
6.1227174 -14.233395 270.52286
6.2919784 -14.23132 270.53299
6.4928384 -14.247639 270.5387
6.7049203 -14.236728 270.55795
6.9163141 -14.233701 270.55389
7.0872393 -14.228171 270.56705
7.3087502 -14.210613 270.54819
7.4844675 -14.200344 270.54474
7.7266932 -14.203981 270.58109
7.8385386 -14.183167 270.57123
8.0334377 -14.163393 270.62311
2.3327675 -13.980535 270.66077
2.5251763 -13.993101 270.59015
2.7272923 -14.064295 270.57065
2.8970616 -14.055653 270.51788
3.1026263 -14.103806 270.51498
3.2952862 -14.102669 270.47949
3.5311656 -14.120471 270.46378
3.6635702 -14.13474 270.45801
3.8829083 -14.135397 270.43369
4.0484185 -14.135956 270.44061
4.2981286 -14.147481 270.44974
4.538064 -14.106332 270.42435
4.7290955 -14.113379 270.44659
4.9030662 -14.126061 270.46542
5.0513563 -14.128217 270.46234
5.2560391 -14.123065 270.45047
5.4919996 -14.147705 270.46613
5.7150264 -14.163763 270.46729
5.9118547 -14.137734 270.43744
6.1006317 -14.12636 270.43314
6.3111939 -14.121879 270.42624
6.5172644 -14.090137 270.41003
6.7241216 -14.06798 270.41751
6.9299059 -14.089388 270.45395
7.0854316 -14.120499 270.47092
7.2806325 -14.085037 270.45941
7.492249 -14.070093 270.4357
7.6956964 -14.068743 270.45016
7.9075656 -14.096112 270.50302
8.0798931 -14.060018 270.53586
8.2293892 -14.032337 270.58661
2.1448982 -13.839595 270.64514
2.3404546 -13.84279 270.56259
2.511085 -13.876634 270.51019
2.6860237 -13.919252 270.48373
2.8681338 -13.943376 270.453
3.1013658 -13.960499 270.39435
3.2644942 -13.939167 270.35681
3.5608888 -14.051112 270.38684
3.6503406 -14.053198 270.37738
4.1079516 -14.020134 270.33228
4.3217459 -14.011204 270.34799
4.4639668 -14.024949 270.36652
4.7184319 -14.033482 270.37689
4.8800344 -14.036646 270.3811
5.0757403 -14.035697 270.383
5.3640327 -14.023212 270.3396
5.3981514 -14.003321 270.31668
5.9522247 -14.058528 270.34506
6.0136328 -14.05457 270.34656
6.3418283 -14.008969 270.33551
6.5421391 -14.030505 270.392
6.72089 -14.009071 270.37845
6.9030814 -13.985376 270.38409
7.0875802 -14.001775 270.39835
7.2608309 -13.978248 270.37881
7.4169064 -14.009678 270.39285
7.7239456 -14.008482 270.40317
7.9048028 -13.970002 270.4162
8.1585226 -13.959805 270.47885
8.3209486 -13.920879 270.48489
8.5002794 -13.886471 270.51541
8.6361046 -13.796312 270.50314
1.9895004 -13.735184 270.6405
2.1471512 -13.694757 270.53647
2.2967565 -13.730204 270.49283
2.4625344 -13.740259 270.44363
2.6825252 -13.787675 270.39243
2.8352737 -13.801427 270.36905
3.0946672 -13.829512 270.30661
3.2586181 -13.850973 270.29333
4.0996528 -13.906076 270.27374
6.9045677 -13.896746 270.3295
8.5647221 -13.788873 270.44458
8.7396421 -13.752678 270.47336
8.7941875 -13.719393 270.48468
1.5870999 -13.35989 270.5408
1.699757 -13.42355 270.53351
1.8887045 -13.525916 270.51355
2.0739894 -13.579583 270.4657
2.2885876 -13.613393 270.37912
2.5293884 -13.654577 270.33405
8.0712099 -13.656385 270.21298
1.3891143 -13.184567 270.50595
1.5287107 -13.292004 270.51758
1.6581428 -13.320743 270.42853
1.7906311 -13.397864 270.42017
1.2986135 -13.090144 270.51028
1.4264544 -13.180244 270.45447
1.5625491 -13.222248 270.37723
1.0752822 -12.782235 270.55347
1.1895747 -12.895363 270.45697
1.0322213 -12.704535 270.55807
1.0822212 -12.703209 270.48318
0.95923495 -12.499329 270.51584
1.035315 -12.497479 270.42645
1.2268797 -12.512335 270.24716
0.7875635 -12.268496 270.55304
0.87454569 -12.316086 270.46786
0.99104494 -12.400661 270.39023
0.58453792 -12.029904 270.54245
0.67151511 -12.078506 270.48312
0.53320289 -11.920957 270.47504
0.60396069 -11.991124 270.45865
0.33424813 -11.512526 270.45386
0.26363188 -11.282968 270.45529
0.22352044 -11.06696 270.4353
0.2335525 -11.095973 270.42529
5.210115 -9.9486389 270.37909
5.3182526 -9.9523821 270.43893
5.4806485 -9.964282 270.44601
5.5963163 -9.9280195 270.5188
5.1034718 -9.7845993 270.47684
5.1546969 -9.8578615 270.48035
5.2667174 -9.9135218 270.5015
5.695086 -9.9022579 270.48877
5.8397512 -9.8065805 270.47107
5.9373236 -9.7579498 270.41458
5.0770531 -9.7456322 270.42096
5.138505 -9.6875515 270.4592
5.7894297 -9.7139635 270.58774
5.9190392 -9.6830168 270.48492
5.9991241 -9.667244 270.40338
5.1887197 -9.5648384 270.45013
5.305007 -9.4934778 270.48776
5.4712768 -9.4709072 270.55475
5.7694936 -9.5069418 270.56693
5.8931246 -9.5029325 270.49512
6.038208 -9.4997463 270.43381
6.1443067 -9.4818878 270.3497
9.7651548 -9.4174519 270.44321
5.193409 -9.4330864 270.34613
5.3320646 -9.3944435 270.40894
5.507544 -9.3853874 270.45605
5.7021112 -9.3893995 270.45663
5.8762031 -9.3874598 270.44147
6.0446448 -9.3970547 270.38269
6.1459384 -9.3563242 270.30637
9.7649364 -9.2101269 270.45023
9.7453804 -9.1235485 270.41754
0.31917652 -8.8199158 270.49966
0.33688074 -8.6916046 270.48727
0.37343889 -8.6618614 270.40863
0.30713549 -8.5089779 270.50992
0.35067219 -8.5296555 270.42917
0.19559146 -8.2604685 270.54184
0.2650733 -8.3137751 270.46225
0.34195262 -8.40804 270.38602
0.15230052 -8.1300802 270.50494
0.21713832 -8.1520786 270.42841
0.091173843 -7.9589005 270.5043
4.5502896 -6.5908999 270.42868
4.6791782 -6.6201811 270.44781
4.8708477 -6.6005688 270.44528
4.9804749 -6.5596848 270.41287
4.2770152 -6.3927193 270.38211
4.3781023 -6.4459548 270.44385
4.4913692 -6.4879088 270.52597
4.6979628 -6.5437851 270.5462
5.0566831 -6.4552608 270.47983
5.1441965 -6.4064307 270.42139
4.2693343 -6.3090506 270.41525
4.3325753 -6.2846293 270.48029
4.5169339 -6.2536454 270.61078
4.7040443 -6.3078117 270.66254
5.000927 -6.2150574 270.59085
5.115654 -6.2689004 270.50952
5.1939821 -6.2852807 270.43564
4.2225046 -6.1318927 270.37903
4.3412442 -6.0999627 270.46802
4.5139232 -6.0676203 270.55612
4.7722697 -6.0736256 270.61246
4.9869924 -6.186327 270.60522
5.1124592 -6.129571 270.53366
5.2293148 -6.0826607 270.44693
4.1439114 -5.9394751 270.29169
4.3484035 -5.926033 270.42664
4.5147734 -5.8996172 270.48062
4.7081275 -5.8539448 270.51468
4.8658872 -5.8395715 270.52475
5.0808034 -5.8720036 270.54352
5.2794452 -5.8830919 270.45532
5.40834 -5.8054695 270.41339
4.1616621 -5.7724791 270.25302
4.3930116 -5.7688718 270.37695
4.5382786 -5.7574716 270.42288
4.7091107 -5.6958985 270.45605
4.9016972 -5.6984668 270.49353
5.0906725 -5.7020068 270.51236
5.2862287 -5.6921377 270.48755
5.464869 -5.6701508 270.44788
5.6128287 -5.6245193 270.38583
4.3230233 -5.6672263 270.28906
4.5783491 -5.5901966 270.35974
4.714747 -5.5348134 270.39005
4.912962 -5.5118823 270.44788
5.1077328 -5.5196095 270.48251
5.2783203 -5.4929738 270.48389
5.5196958 -5.4965391 270.48471
5.6746979 -5.4584045 270.45059
5.8376284 -5.4066596 270.3924
5.9033585 -5.3694148 270.35263
4.7691097 -5.3738041 270.34717
4.9387488 -5.3408456 270.39227
5.0975161 -5.3287201 270.42413
5.2978764 -5.328136 270.46063
5.5064502 -5.311985 270.46707
5.6918793 -5.3147469 270.45258
5.8206339 -5.2968674 270.41934
4.9547138 -5.2303514 270.36896
5.0988712 -5.2084799 270.38611
5.3133717 -5.174551 270.3989
5.5204501 -5.1461315 270.40314
5.6663218 -5.1946583 270.38574
5.7497163 -5.2757058 270.43823
5.4843841 -4.9202762 270.29816
4.7739096 -4.5775104 270.38235
4.8654079 -4.6363893 270.36694
2.9114325 -4.4555206 270.47729
2.870394 -4.4103441 270.47824
3.0364645 -4.3448701 270.3981
3.9630315 -4.3453999 270.44217
4.1232681 -4.3606348 270.492
4.3181744 -4.3751402 270.53546
4.5323625 -4.444097 270.48059
4.7114677 -4.484962 270.47763
4.9051743 -4.5227923 270.50583
5.057847 -4.5876427 270.47559
5.2069774 -4.6299911 270.46976
3.2914443 -4.2855296 270.46671
3.515609 -4.2766213 270.45538
3.6952639 -4.2527924 270.48904
3.901823 -4.3135357 270.46802
4.0985222 -4.2330556 270.59332
4.2557425 -4.3440924 270.56302
4.4952269 -4.3052726 270.64331
2.4135234 -3.9023104 270.69843
2.7611651 -3.9832289 270.57672
2.9174135 -4.0293045 270.54242
3.1106603 -4.0471258 270.51218
3.2948139 -4.0747123 270.49951
3.5111969 -4.0776882 270.48425
3.6705718 -4.0793743 270.50049
3.8942595 -4.051435 270.54596
4.0823145 -4.0879927 270.58371
4.3181243 -4.0881596 270.65643
4.3827791 -4.1304603 270.65881
4.5594759 -4.0232568 270.72
2.3938017 -3.8213539 270.6416
2.5300419 -3.8580222 270.61545
2.723381 -3.8726804 270.53998
2.9093113 -3.885715 270.50122
3.0942478 -3.9048202 270.46912
3.3021181 -3.9483204 270.45523
3.4969783 -3.9647393 270.46799
3.7041101 -3.9620445 270.46231
3.8870485 -3.9388771 270.49255
4.0751538 -3.8666975 270.50507
4.2403026 -3.8427093 270.54416
4.4060431 -3.7896397 270.57907
2.0200205 -3.5718217 270.60968
2.1276879 -3.604826 270.57837
2.3306375 -3.6811321 270.54239
2.4992189 -3.7005157 270.49875
2.6634142 -3.729645 270.45636
2.8509729 -3.7539134 270.40002
3.0413575 -3.8062091 270.38593
3.6968646 -3.8028169 270.35248
3.8830585 -3.7672012 270.37567
4.0733633 -3.7454097 270.41806
4.3191795 -3.7003841 270.49695
4.4607048 -3.6738415 270.55295
4.6409874 -3.6423316 270.61731
4.8344154 -3.6891489 270.71735
5.9622684 -3.5728912 270.59531
6.0548363 -3.6387053 270.52435
6.2723565 -3.5747607 270.58521
1.8045026 -3.3912635 270.60681
1.9335955 -3.4367938 270.54593
2.0905828 -3.5207682 270.50882
2.2715087 -3.5546558 270.46011
2.5020409 -3.5745132 270.39255
2.8253486 -3.6590765 270.33347
2.9676402 -3.6899498 270.31702
4.1109743 -3.5141921 270.31738
4.3595991 -3.5414798 270.44238
4.5061717 -3.4917033 270.50208
4.6769285 -3.4783893 270.58591
4.8407593 -3.4398327 270.64325
4.9528284 -3.3954699 270.68564
6.1318107 -3.617991 270.47351
6.3102164 -3.5465746 270.54193
6.5075397 -3.4499958 270.52692
6.6031547 -3.4232607 270.55704
1.6325048 -3.1698878 270.55811
1.7527875 -3.2641587 270.52658
1.8925569 -3.3433225 270.49237
2.100009 -3.3920434 270.39163
2.2093816 -3.440666 270.38211
4.5118527 -3.3055441 270.48608
4.6627588 -3.302016 270.55869
4.8199234 -3.3244412 270.62335
4.9423923 -3.3679755 270.6777
6.5917945 -3.4261541 270.44223
6.69947 -3.4411364 270.50507
1.4339273 -2.9836235 270.61307
1.559509 -3.0737209 270.55313
1.6569403 -3.1087639 270.47375
1.78536 -3.1104805 270.36642
4.142796 -3.0030191 270.41391
4.3182855 -3.0669866 270.49142
4.501884 -3.1063597 270.54868
4.6470418 -3.153167 270.58875
4.8275137 -3.1812699 270.64203
1.3453815 -2.8466108 270.55609
1.4883103 -2.9188859 270.46976
1.6196254 -2.9620175 270.39014
3.9834726 -2.8306773 270.41269
4.1029091 -2.8809977 270.47531
4.2905717 -2.9607465 270.53455
4.542964 -3.0211022 270.60498
4.6272535 -3.0059285 270.63846
6.454638 -2.7066286 270.61084
1.1552491 -2.6192811 270.56052
1.2771375 -2.7061856 270.49454
1.4431012 -2.7683871 270.36728
3.8071971 -2.6753016 270.36285
3.9555967 -2.7032158 270.47031
3.9915609 -2.6958697 270.51801
4.1916165 -2.7590311 270.65491
5.5506649 -2.5144777 270.62729
5.7859497 -2.5798261 270.61136
5.9276443 -2.6084042 270.59204
6.0764709 -2.6281328 270.57013
6.313643 -2.6172538 270.54285
6.4735136 -2.6337316 270.55978
6.6908894 -2.6039386 270.5705
6.81358 -2.5852067 270.62918
1.0439911 -2.4467421 270.57645
1.1148993 -2.4984717 270.5144
1.2245539 -2.5673008 270.41412
3.7448812 -2.4089632 270.37891
3.8805165 -2.5066473 270.50214
3.9613626 -2.6108646 270.53769
5.3821383 -2.4721577 270.68817
5.579361 -2.454181 270.63062
5.7464981 -2.4738743 270.57043
5.8994808 -2.4843674 270.52396
6.0823107 -2.5134966 270.49008
6.2786112 -2.5303645 270.4613
6.49756 -2.5148597 270.44904
6.7157884 -2.5148051 270.48474
6.8646836 -2.4755993 270.53876
7.0828862 -2.4123926 270.60867
1.0310153 -2.2987261 270.53369
1.0705118 -2.3101518 270.48203
3.7542226 -2.3086016 270.45926
3.8155885 -2.3166685 270.52344
5.4017763 -2.3375609 270.67703
5.5697112 -2.3272898 270.60907
5.7450628 -2.3081453 270.5387
5.8939667 -2.3127942 270.46844
6.0613723 -2.3689284 270.41968
6.22436 -2.3661313 270.38449
6.5973463 -2.3645241 270.34348
6.9174099 -2.3857164 270.47906
7.0997787 -2.2888534 270.51813
7.2391734 -2.2221682 270.58347
7.4511495 -2.1641383 270.65277
1.0158635 -2.1511145 270.58899
1.0732762 -2.0918014 270.5134
3.5698836 -2.0041549 270.45773
3.7003691 -2.094208 270.51501
3.7610567 -2.1808443 270.53897
5.5994563 -2.1389117 270.6207
5.7554035 -2.1260862 270.55392
5.9018416 -2.0963035 270.47684
6.006382 -2.0731325 270.42657
6.1712127 -2.0980165 270.32874
6.9337769 -2.224262 270.37961
7.1314278 -2.0975091 270.4201
7.2978616 -2.0767858 270.51602
7.4560127 -2.0537009 270.58804
7.6660213 -2.004195 270.62192
1.0550419 -2.0164826 270.57291
1.1364696 -1.9072238 270.50302
1.1944259 -1.8060384 270.48203
3.2423525 -1.7603666 270.36383
3.3683202 -1.8109907 270.41779
3.5285978 -1.8785967 270.47266
3.6632345 -1.9509534 270.55261
3.7571428 -1.9590809 270.63507
5.7829647 -1.8964897 270.55823
5.8836393 -1.8866524 270.49597
6.0267463 -1.88214 270.41382
6.2208514 -1.8526731 270.32632
7.0049276 -1.9201318 270.32346
7.1683979 -1.9167863 270.36493
7.3225074 -1.9415569 270.43094
7.5052562 -1.9159863 270.49722
7.7265196 -1.8762609 270.52563
7.8755355 -1.8504373 270.55295
8.0366364 -1.7923956 270.57693
1.1609905 -1.7064254 270.56964
1.2426276 -1.6605396 270.47208
3.0359757 -1.5888547 270.31787
3.1606059 -1.6250938 270.34814
3.339088 -1.6900952 270.42828
3.4953082 -1.6879141 270.49002
3.6941581 -1.6038339 270.5762
5.5940061 -1.5920513 270.68417
5.778758 -1.6539952 270.56506
5.8945279 -1.6897278 270.49738
6.0142555 -1.6931639 270.41635
6.1950722 -1.6812773 270.3324
6.6975923 -1.7353591 270.23474
7.1136498 -1.8146194 270.30661
7.2811513 -1.8505088 270.37473
7.5048089 -1.8162235 270.39606
7.7341542 -1.7950726 270.44812
7.9197373 -1.7621015 270.48026
8.1159658 -1.7022572 270.51596
8.2367544 -1.6575574 270.54007
1.2658499 -1.4950565 270.47235
1.3591019 -1.4227147 270.38992
3.0614154 -1.6068054 270.29999
3.2014728 -1.5809656 270.36227
3.3505154 -1.5560094 270.41318
3.5228431 -1.5377985 270.47366
3.6917179 -1.5031359 270.55267
3.7941983 -1.4390355 270.59723
5.6034045 -1.4645128 270.64331
5.7541051 -1.4796715 270.54648
5.8676472 -1.5049659 270.47552
6.0142322 -1.5021584 270.39685
6.1266432 -1.4756376 270.32465
8.3528576 -1.5122877 270.47784
8.4493217 -1.4602408 270.5314
8.6263342 -1.360809 270.66058
1.0032904 -1.1984475 270.61197
1.1564465 -1.2906986 270.53024
1.2630984 -1.315673 270.4595
1.3508514 -1.3687634 270.39755
3.5775385 -1.2302011 270.4502
3.7118304 -1.263647 270.48996
3.8266275 -1.2996557 270.59015
3.9071567 -1.2798501 270.6384
5.4674501 -1.2808973 270.68234
5.545331 -1.2712222 270.64337
5.7216935 -1.3027532 270.53171
5.8527327 -1.3165166 270.45752
8.5358496 -1.3412495 270.50031
8.6196899 -1.2584733 270.54834
0.61996126 -0.94959831 270.70074
0.7059797 -0.99984539 270.66901
0.93272024 -1.043187 270.55475
1.1063448 -1.1107235 270.49554
1.2604824 -1.1321779 270.39474
1.4826152 -1.0540246 270.27063
3.1635642 -1.0107511 270.45328
3.329066 -1.0334228 270.4964
3.5059292 -1.0873023 270.52136
3.6884115 -1.1419394 270.55908
3.8152733 -1.1533886 270.60834
5.4673147 -1.1649272 270.69785
5.6004939 -1.1159484 270.59811
5.7260141 -1.1018708 270.52762
5.8709111 -1.1251131 270.43509
6.0472121 -1.1464972 270.32535
8.5981102 -1.1335465 270.42191
8.6645155 -1.086663 270.5163
8.7104797 -1.1489635 270.62369
0.61771935 -0.85302562 270.67169
0.74982727 -0.86168623 270.60242
0.90120804 -0.8866595 270.51367
1.1433612 -0.93422312 270.41071
1.2747378 -0.94844896 270.35489
2.6122081 -0.78790253 270.38806
2.7496855 -0.80502534 270.45193
2.9030528 -0.84604186 270.50623
3.0792291 -0.91801691 270.51285
3.2635798 -0.98134834 270.50757
3.4281316 -0.99141043 270.55795
3.7363293 -1.0671223 270.62112
3.7869842 -1.0372715 270.66605
5.6120772 -0.94499058 270.62411
5.7455177 -0.91046709 270.54114
5.8748436 -0.86005461 270.4487
5.9783721 -0.85519177 270.38434
8.7147436 -0.88766372 270.52444
8.7599869 -0.8557269 270.61276
0.73919028 -0.69834155 270.58566
0.89818597 -0.67989814 270.4873
1.0559882 -0.64678842 270.41733
1.3720291 -0.62937224 270.32364
1.4129668 -0.58656216 270.31851
2.3866177 -0.60687387 270.37775
2.5233777 -0.62903392 270.4498
2.6930633 -0.72040689 270.4942
2.8076649 -0.77520633 270.52017
3.1600711 -0.86520123 270.64157
5.5834136 -0.76294273 270.6644
5.7717261 -0.74676985 270.52948
5.8721938 -0.69045758 270.46188
5.9815025 -0.6867817 270.37888
8.7442493 -0.69715321 270.50769
0.73976797 -0.54823977 270.55997
0.88035274 -0.50417912 270.48593
1.0679529 -0.50164843 270.40921
1.308794 -0.48081243 270.327
1.508721 -0.45947215 270.30872
1.5918673 -0.51968139 270.28452
1.9032266 -0.4844352 270.30432
2.1563747 -0.49321598 270.32114
2.3496706 -0.48825732 270.39383
2.518892 -0.49580416 270.4935
2.6435599 -0.56585395 270.54916
5.7562146 -0.48295957 270.54031
5.8548126 -0.51515865 270.46338
5.992671 -0.52719688 270.33932
8.7598839 -0.51366824 270.47247
8.8007565 -0.44163615 270.53241
0.48022994 -0.24648909 270.63062
0.72045475 -0.30297902 270.52475
0.87857854 -0.32219139 270.44366
1.0813549 -0.38017979 270.36835
1.209246 -0.38817352 270.33286
1.5616487 -0.42633644 270.30872
1.6004696 -0.43930832 270.2963
1.8892823 -0.42762834 270.31061
2.1269419 -0.41833109 270.32718
2.3515964 -0.36570856 270.40265
2.5129347 -0.32387689 270.45309
2.6797881 -0.28843528 270.54306
2.8254442 -0.22344364 270.60849
5.6484756 -0.25366309 270.61902
5.7507076 -0.29564345 270.53375
5.8573294 -0.32780853 270.44101
8.7437325 -0.39576197 270.40396
8.7993793 -0.30632341 270.50055
0.25413182 -0.069337264 270.68817
0.36180174 -0.053322781 270.62134
0.51149803 -0.072125122 270.55124
0.65960675 -0.10099813 270.48386
0.84869492 -0.15521353 270.41177
2.3645384 -0.091014452 270.33304
2.5262959 -0.1416495 270.41718
2.682333 -0.10998335 270.47818
2.8758423 -0.073640727 270.58722
2.9792097 -0.045186136 270.63254
3.1245949 -0.018698405 270.7334
5.6258512 -0.091524005 270.65784
5.7581639 -0.1192703 270.54831
5.8713465 -0.12766819 270.45047
8.7762651 -0.079915337 270.4274
8.8278055 -0.099854909 270.52881
0.22407068 0.13877368 270.64685
0.34299818 0.093921006 270.59875
0.49280092 0.10272066 270.52414
0.68066472 0.079067834 270.4332
0.80478865 0.023478298 270.37009
2.6004717 0.19253239 270.42352
2.74278 0.12064815 270.49945
2.8588569 0.083131328 270.56311
2.9884405 0.042050652 270.6347
5.6669946 0.0030008166 270.66437
5.8119979 0.020219147 270.56
5.9187913 0.075966008 270.52002
6.079814 0.15717709 270.47382
6.2523866 0.21115939 270.39307
8.7704525 0.12956184 270.47589
8.8158436 0.11549045 270.54456
0.21598125 0.3496139 270.66312
0.32993439 0.31530696 270.60992
0.50130558 0.30960661 270.5246
0.67257637 0.30273131 270.43939
2.3294497 0.33298257 270.35297
2.5250602 0.36193854 270.44836
2.6650009 0.29755563 270.50244
2.8369887 0.22551933 270.58353
6.1259575 0.230685 270.54056
6.2943873 0.30238557 270.50464
6.4707813 0.36061138 270.48007
6.643558 0.40513515 270.42084
8.7090397 0.33312514 270.48566
8.7832298 0.2657766 270.55188
0.3719224 0.45337781 270.59753
0.49478391 0.50165033 270.53726
0.67241275 0.52071816 270.45001
0.856224 0.54548192 270.38986
1.2144558 0.6174767 270.27615
1.7377836 0.61174649 270.29037
1.9472547 0.58137184 270.31735
2.1228726 0.56014514 270.34866
2.3528323 0.54892594 270.42664
2.505126 0.50022101 270.48328
2.6539578 0.4846597 270.56226
6.3456788 0.38684246 270.612
6.5062084 0.41942802 270.54999
6.703898 0.48107326 270.51129
6.9049921 0.55106354 270.5126
7.058754 0.5688138 270.44867
7.2371831 0.61703646 270.44952
8.3633757 0.6197862 270.38803
8.518959 0.55483145 270.43439
8.6826525 0.49203441 270.53848
8.7890387 0.40751824 270.62714
0.50017381 0.65569049 270.51328
0.686759 0.68062258 270.43188
0.85568112 0.70811242 270.37463
1.0914053 0.69864011 270.29794
1.2421823 0.7054776 270.28958
1.5276345 0.74768275 270.29041
1.7210256 0.67553926 270.30304
1.9177705 0.69096476 270.32697
2.1294675 0.69725847 270.36514
2.3392987 0.70113409 270.43112
2.4973636 0.69267315 270.50211
2.6682863 0.75770718 270.5773
6.9433308 0.57288867 270.53339
7.0864935 0.62304938 270.54514
7.3082004 0.66343528 270.50537
7.4867001 0.70150822 270.50241
7.7021341 0.74051791 270.48502
7.9054413 0.75402588 270.46387
8.0765352 0.75434494 270.43256
8.2978945 0.71112591 270.42188
8.495327 0.6924215 270.49475
8.6476755 0.64788747 270.57755
0.0031823106 0.96722871 270.63977
0.14015873 0.95211643 270.58542
0.3051053 0.91139853 270.53043
0.47731537 0.88709515 270.46027
0.63497311 0.83734709 270.4158
1.7994385 0.77502584 270.29248
1.893088 0.78897625 270.29974
2.1425474 0.81033051 270.36319
2.3293488 0.81456238 270.41196
2.5008366 0.86822397 270.4747
2.667397 0.91487217 270.55658
2.8457384 0.99216849 270.63251
2.9129958 1.0083768 270.66754
7.7329102 0.76645738 270.52393
7.9323125 0.82285213 270.55289
8.0961819 0.85468328 270.52808
8.2898884 0.84735519 270.53061
8.4779787 0.84474516 270.57272
8.5867672 0.83755147 270.62222
-0.077791944 1.1743429 270.67056
-0.0032790378 1.121066 270.61465
0.13185446 1.1282842 270.52017
0.29474536 1.0944625 270.46936
0.47869551 1.0225552 270.42322
0.59910703 1.0188416 270.37823
2.3507609 1.0663121 270.38522
2.5292885 1.0910056 270.45798
2.6673186 1.1012433 270.52579
2.8178766 1.1402191 270.60092
8.1805544 1.0505301 270.68378
8.3200855 0.98187137 270.62457
8.4782152 1.0146873 270.6741
-0.0020391794 1.276103 270.62259
0.13700408 1.2989275 270.5209
0.30735981 1.3397982 270.44467
2.1647296 1.3214966 270.3555
2.3740544 1.2666031 270.41492
2.5070705 1.2931715 270.48071
2.6560979 1.2733868 270.56201
2.7801466 1.2470684 270.60913
0.15879211 1.4475542 270.55453
0.30028111 1.4997296 270.4946
0.44951075 1.5276332 270.43555
0.6674735 1.4821935 270.33481
1.585377 1.6040403 270.36703
1.710979 1.5948371 270.38806
1.9183031 1.5682805 270.43387
2.107703 1.5161501 270.46918
2.3058007 1.468273 270.50754
2.4718766 1.4568182 270.57285
2.5902443 1.4204566 270.59726
0.2233946 1.5738994 270.57007
0.31838021 1.6341693 270.55869
0.48873362 1.703861 270.50665
0.66287649 1.7390826 270.44229
0.8913545 1.7825217 270.39969
1.2039126 1.8046957 270.37024
1.3754381 1.7746379 270.38751
1.5085183 1.75449 270.39679
1.704794 1.7197937 270.43689
1.9119438 1.6958008 270.50122
2.0828631 1.6288583 270.5369
2.3029547 1.5917631 270.60056
0.55473995 1.8600332 270.56055
0.71041834 1.8862324 270.51382
0.89419442 1.8998891 270.46463
1.0959061 1.9123068 270.42435
1.3303497 1.916643 270.44324
1.50135 1.8980799 270.45279
1.6902864 1.9009646 270.50772
1.8094866 1.9281837 270.56931
0.73497742 2.0511582 270.59595
0.91351604 2.0616839 270.54337
1.0971954 2.0967813 270.5069
1.291454 2.0731626 270.48877
1.5011072 2.0785742 270.5032
1.6726881 2.0907402 270.55167
1.8309944 2.0898979 270.6088
0.99103671 2.3017709 270.63004
1.156229 2.2706428 270.58414
1.3169619 2.2827938 270.57941
1.479275 2.2686288 270.57388
1.6839474 2.2478833 270.59503
1.8372175 2.262517 270.65067
1.0154747 2.3651659 270.66132
1.1349192 2.3935437 270.65582
1.3061118 2.3895757 270.63309
1.4837756 2.4088917 270.64432
1.7261194 2.3863912 270.67065
1.815164 2.3824949 270.68558
7.4535418 5.844069 270.7883
2.7142799 -14.323453 270.85361
3.4605014 -14.365527 270.79611
3.7508767 -14.396249 270.76981
3.8566444 -14.384113 270.73495
4.1002302 -14.403944 270.76068
4.3059716 -14.407303 270.77188
4.4242444 -14.411599 270.78229
4.7451553 -14.397965 270.76892
4.8634386 -14.397991 270.76999
5.1281781 -14.395798 270.76782
5.3031192 -14.42121 270.78659
5.7351332 -14.398651 270.7804
5.8484607 -14.387182 270.75024
6.1407332 -14.412792 270.77237
6.3183255 -14.403642 270.74692
6.4986219 -14.401975 270.74634
6.6959476 -14.386734 270.75735
6.9078121 -14.367569 270.74524
7.0785685 -14.368683 270.76974
7.3221135 -14.39037 270.7966
7.4768481 -14.379058 270.78598
7.6630177 -14.36441 270.79987
7.8477073 -14.342998 270.78806
2.3390777 -14.171321 270.83334
2.716433 -14.24918 270.77432
2.9343269 -14.251168 270.72778
3.1149809 -14.275872 270.7066
3.3000052 -14.282947 270.71506
3.4939716 -14.31269 270.71347
3.6890674 -14.335368 270.69705
3.9195664 -14.350196 270.68463
4.0669971 -14.33884 270.65286
4.2984858 -14.341871 270.6918
4.5330796 -14.332501 270.68463
4.7033372 -14.314238 270.66544
4.8922977 -14.318609 270.68494
5.078433 -14.321412 270.67776
5.2683072 -14.321922 270.68896
5.5247946 -14.324112 270.67755
5.6841726 -14.335963 270.67706
5.8634152 -14.319878 270.66684
6.0725698 -14.354163 270.69452
6.2964568 -14.352651 270.68982
6.4947166 -14.339803 270.67294
6.6920471 -14.312687 270.65552
6.8925147 -14.334965 270.69388
7.139214 -14.326215 270.69839
7.3049135 -14.320174 270.68875
7.523932 -14.330268 270.72479
7.7053561 -14.293077 270.69916
7.912035 -14.260779 270.70471
8.0513811 -14.202504 270.72528
2.0028059 -13.982782 270.83713
2.181546 -14.002478 270.75848
2.3261333 -14.048101 270.73083
2.5030832 -14.125469 270.71649
2.6443586 -14.097099 270.64838
2.892385 -14.174932 270.64862
3.1200144 -14.196457 270.62393
3.2293956 -14.227114 270.64517
3.6891596 -14.203002 270.52991
4.0378013 -14.242128 270.55762
5.024097 -14.167329 270.50272
5.4721017 -14.235225 270.57379
6.6069942 -14.120692 270.50064
6.8028197 -14.107548 270.48428
6.8512673 -14.116779 270.52011
7.0430989 -14.094934 270.50467
7.2924595 -14.13251 270.52557
7.9567866 -14.175934 270.61511
8.1191397 -14.10976 270.63135
8.273118 -14.067414 270.66342
8.420064 -14.025237 270.74554
1.8116146 -13.821467 270.85345
1.9449488 -13.843884 270.78134
2.1144755 -13.883375 270.69879
2.2557209 -13.955761 270.69336
2.5513375 -14.009013 270.59421
2.6168981 -14.038983 270.60641
4.3975048 -14.115554 270.44733
4.853476 -14.106814 270.46368
6.5994253 -14.084453 270.47516
6.7904167 -14.063854 270.47903
6.8639483 -14.065861 270.49744
6.9932833 -14.070259 270.48984
7.7958231 -14.102647 270.49261
8.3155308 -14.026263 270.62646
8.4955692 -13.954141 270.66434
8.7813644 -13.842803 270.62521
1.7661498 -13.682379 270.7662
1.9080431 -13.706903 270.69421
2.0524073 -13.749655 270.63931
2.2845652 -13.793543 270.56
2.4736645 -13.825534 270.52502
2.8089511 -13.878022 270.4379
1.5246561 -13.437286 270.69772
1.6989738 -13.544721 270.67831
1.8161248 -13.567199 270.60397
1.3424304 -13.24472 270.67084
1.4896133 -13.351514 270.64536
1.1754841 -13.029707 270.65704
1.2071595 -13.056626 270.64337
0.96666384 -12.661966 270.64737
0.84879631 -12.518602 270.68143
0.76646191 -12.345957 270.68042
0.80661917 -12.392795 270.64032
0.59578407 -12.158219 270.70999
0.62747365 -12.169555 270.67993
0.46162811 -11.995688 270.66269
0.24953964 -11.315294 270.60953
5.398088 -9.9190884 270.6138
5.5053926 -9.8961983 270.62231
5.1439962 -9.7897749 270.56076
5.2077541 -9.7969751 270.6218
5.3340364 -9.8465261 270.67371
5.5310431 -9.8502293 270.66394
5.6424727 -9.82656 270.64862
5.7681479 -9.7976418 270.59451
5.2334218 -9.7408056 270.61789
5.3388009 -9.7053576 270.69107
5.51436 -9.663209 270.70923
5.7166858 -9.6804295 270.67575
5.7950926 -9.6742859 270.63312
5.3482423 -9.6005535 270.62567
5.5204782 -9.5564775 270.65121
5.6809578 -9.5380983 270.62466
5.8319793 -9.5458403 270.58728
5.940937 -9.5126781 270.54572
5.5410743 -9.4483719 270.56326
5.6443663 -9.4732647 270.578
5.9313951 -9.4233618 270.49588
0.27842242 -8.8420696 270.68353
0.17973782 -8.6013412 270.80286
0.27292758 -8.6867075 270.66925
0.21927737 -8.5479031 270.71011
0.23713312 -8.5094929 270.64972
0.12979832 -8.2819748 270.66379
0.20993675 -8.3700724 270.60379
0.10120337 -8.1644039 270.60339
4.5863924 -6.5122819 270.60947
4.6995635 -6.5154562 270.64066
4.8672471 -6.5113978 270.59982
4.9339542 -6.5082417 270.55212
4.4652247 -6.4297857 270.5997
4.5632062 -6.4566331 270.61319
4.7134094 -6.462574 270.65936
4.8454523 -6.4469433 270.65506
4.9831538 -6.4388666 270.58841
4.3337021 -6.3331041 270.54803
4.4072347 -6.3256412 270.57327
4.5303493 -6.3166509 270.64334
4.7021718 -6.3012948 270.70367
4.9060163 -6.278513 270.68161
5.0139318 -6.3125138 270.61801
5.126132 -6.293138 270.53854
4.4460325 -6.1305919 270.57684
4.5299201 -6.1623302 270.60428
4.7095194 -6.134583 270.65564
4.8864942 -6.1180997 270.64795
5.0400701 -6.0977578 270.60977
5.173882 -6.0113859 270.51709
4.4141531 -6.0236726 270.51828
4.5636358 -5.9815435 270.57236
4.7178483 -5.9785066 270.59775
4.9122634 -5.9699311 270.61292
5.0857754 -5.9305911 270.5798
5.1800652 -5.8745675 270.54117
4.6068282 -5.8383379 270.50589
4.8568525 -5.7747073 270.54303
5.1105866 -5.7166138 270.5386
5.3015456 -5.705348 270.52792
5.4142618 -5.6190906 270.51575
4.9994774 -5.5619426 270.51202
5.1269636 -5.5329947 270.50983
5.3591828 -5.5286169 270.5217
5.4724536 -5.518003 270.5163
5.6235476 -5.4736576 270.48694
5.7727675 -5.3803902 270.45337
4.9901805 -5.3643775 270.45285
5.1417422 -5.4170198 270.48859
5.5335555 -5.3396292 270.50616
5.6827011 -5.3370285 270.48721
5.7998381 -5.3358216 270.46896
5.0676188 -5.2974792 270.43842
5.5916858 -5.2559118 270.48572
5.7181664 -5.2450838 270.47198
5.7281704 -5.2630572 270.45963
2.7933717 -4.341289 270.66418
2.8856926 -4.3325272 270.69501
2.9809821 -4.3240542 270.60394
4.152247 -4.2989068 270.6203
4.3434277 -4.3559885 270.60953
4.568428 -4.3652053 270.65674
4.7055278 -4.3808784 270.68839
4.8998904 -4.4354067 270.6745
5.0566802 -4.4250002 270.62808
3.117743 -4.2563672 270.77679
3.32584 -4.223732 270.74408
3.5093677 -4.2183518 270.72849
3.6792932 -4.2473841 270.72531
3.9027851 -4.2136164 270.70737
4.1073947 -4.2744365 270.74219
4.2709994 -4.2640538 270.68021
4.5064459 -4.2516212 270.78314
4.6236553 -4.2578616 270.81836
2.3681495 -3.9821255 270.80783
2.5215664 -4.0038271 270.7709
2.6958523 -4.058619 270.71396
2.8975115 -4.1280785 270.70511
3.122627 -4.1912436 270.69312
3.3197057 -4.1810541 270.66187
3.5027461 -4.1785407 270.66632
3.7221031 -4.1627569 270.63364
3.9021361 -4.1539397 270.62247
4.1180863 -4.110126 270.65363
4.3260918 -4.0988555 270.71667
4.4836788 -4.0989504 270.7533
4.645607 -4.0728707 270.8089
4.7657475 -4.1218967 270.84106
5.0977726 -4.0283847 270.95984
1.9998971 -3.78547 270.85098
2.164048 -3.8347585 270.78262
2.3247387 -3.8760815 270.72949
2.4940059 -3.8958492 270.67596
2.6261008 -3.9126818 270.62637
2.8273671 -3.9240923 270.58295
3.0682828 -3.9908812 270.57715
3.2827687 -4.0207114 270.55045
3.525655 -4.0364819 270.55106
3.7664645 -4.004859 270.53961
3.8699942 -4.0281758 270.55997
4.1564617 -3.986819 270.62354
4.3305092 -3.9248753 270.6358
4.5214591 -3.8605406 270.68903
4.6473265 -3.8811748 270.76086
4.8505211 -3.8465242 270.8335
5.2629533 -3.7836096 270.94586
6.1214538 -3.7027824 270.8443
6.2908106 -3.6892586 270.77698
6.458632 -3.6800396 270.84998
6.5798688 -3.6533244 270.84091
1.8104266 -3.5773492 270.80228
1.929656 -3.629225 270.76019
2.0912118 -3.6980538 270.69611
2.2749417 -3.7365215 270.62866
2.4754977 -3.7781398 270.58405
2.7064378 -3.8314955 270.52963
4.3179455 -3.8019443 270.58374
4.5567937 -3.7245147 270.63687
4.702868 -3.686861 270.70004
4.8368754 -3.6704781 270.74908
5.0786672 -3.5893278 270.81815
5.9877386 -3.6520457 270.85382
6.1066384 -3.6046062 270.70859
6.2997842 -3.5946019 270.70676
6.4528475 -3.5886297 270.75174
6.6069765 -3.5710475 270.77048
6.7468629 -3.5156505 270.79669
6.810739 -3.5313475 270.85406
1.7206753 -3.4472883 270.73883
1.8696588 -3.5311487 270.70035
2.1157568 -3.6045442 270.59851
2.183686 -3.6228447 270.57135
4.5766964 -3.5468614 270.56076
4.7051005 -3.5273588 270.63629
4.8771682 -3.4935238 270.71317
5.0600338 -3.4555929 270.77527
5.2194943 -3.427767 270.84128
6.1877222 -3.6232476 270.74911
6.3278875 -3.56706 270.73657
6.496603 -3.5306213 270.70496
6.6688175 -3.4429514 270.74646
6.7506828 -3.4715025 270.83389
1.5728469 -3.2320902 270.707
1.6591344 -3.3181677 270.68082
4.741106 -3.3201795 270.61584
4.8915715 -3.3014622 270.67975
5.0592027 -3.2855153 270.76358
5.248435 -3.3209417 270.83524
5.3953099 -3.2934098 270.8804
6.5197272 -3.4485114 270.77707
6.6467576 -3.4406343 270.79468
6.7089939 -3.3330975 270.83307
1.3814945 -3.0397048 270.74579
1.4682416 -3.0962834 270.69455
4.4051323 -2.9845386 270.58994
4.5317631 -3.0690556 270.59833
4.7309752 -3.0680485 270.67252
4.8884182 -3.0862143 270.71567
5.0777864 -3.1265957 270.77847
5.241118 -3.1377692 270.82535
5.4183769 -3.0048282 270.85855
5.6799669 -3.1015608 270.89105
5.90554 -2.9975638 270.85516
6.0498505 -3.0015237 270.85831
1.1830894 -2.8282144 270.7637
1.2933973 -2.9105792 270.70642
1.4163333 -2.9745607 270.62933
4.0594339 -2.7558961 270.58243
4.1768227 -2.8056827 270.62357
4.3212829 -2.8409269 270.67236
4.5114179 -2.889426 270.70142
4.6738305 -2.951416 270.71008
4.8746896 -2.9489503 270.76257
5.042191 -2.9602211 270.78934
5.5207052 -2.8457186 270.80023
5.7091908 -2.8299816 270.7738
5.8860993 -2.8698301 270.78738
6.1131539 -2.8570664 270.77432
6.2888398 -2.850879 270.76669
6.4519067 -2.7933245 270.71564
1.0457575 -2.5910125 270.69659
1.1201909 -2.7001033 270.71216
1.2365993 -2.7878218 270.63785
4.0562439 -2.7044153 270.61761
4.1257806 -2.6892557 270.6904
4.2528009 -2.7457261 270.73111
4.4734659 -2.7619762 270.8038
4.9283681 -2.6940873 270.84161
5.1391034 -2.6815763 270.82288
5.3101225 -2.676096 270.78513
5.5103726 -2.6756904 270.74338
5.6922359 -2.6833827 270.70065
5.8807578 -2.725292 270.6908
6.1171107 -2.7283154 270.65903
6.2798548 -2.7509787 270.67517
6.5488954 -2.7273901 270.66885
6.6836095 -2.7119689 270.70343
6.8890071 -2.6127973 270.70535
7.0318451 -2.5605054 270.73541
0.97907037 -2.4622202 270.71545
1.0343008 -2.4759209 270.62997
3.9716847 -2.4754956 270.67505
4.0571985 -2.5358298 270.74847
4.9790125 -2.5712454 270.8512
5.153132 -2.4903111 270.82486
5.329339 -2.4915953 270.74594
5.4755502 -2.5036225 270.70435
5.6754761 -2.5111628 270.63275
5.8996367 -2.5369322 270.5705
5.9932809 -2.5801914 270.58066
6.9497247 -2.5130224 270.64108
7.0781889 -2.4988902 270.71866
7.1952019 -2.4773202 270.77893
0.94796461 -2.314882 270.71512
0.99665844 -2.3095682 270.61813
3.9138649 -2.3045681 270.69119
5.0271358 -2.3683865 270.89508
5.1858959 -2.3652997 270.81625
5.3365245 -2.3309166 270.73917
5.5027905 -2.3102136 270.67688
5.6504068 -2.311542 270.61514
5.9651537 -2.4315743 270.49762
7.1313953 -2.4009306 270.64948
7.3012838 -2.3132503 270.69824
7.4480653 -2.2437205 270.73444
7.7137218 -2.151046 270.78329
7.7719088 -2.1582499 270.83725
0.96081972 -2.1131816 270.72626
1.0115653 -2.0853338 270.63724
3.7597642 -2.0494411 270.63385
3.8481114 -2.1200697 270.70828
5.3611398 -2.1584074 270.80707
5.5088682 -2.1083319 270.72565
5.631289 -2.0510874 270.65311
7.3684611 -2.1606634 270.63397
7.5240908 -2.1110983 270.67838
7.6873426 -2.0703132 270.71191
7.8903275 -2.0370054 270.77823
8.0397711 -1.9650869 270.7858
0.99460012 -1.9307101 270.74329
1.046041 -1.8669072 270.68634
3.6225724 -1.8686917 270.57898
3.732003 -1.8719686 270.65662
3.8218839 -1.9015402 270.74344
5.547255 -1.8757628 270.7702
5.6540546 -1.8962455 270.66193
5.8153071 -1.8606533 270.56097
7.2461567 -1.8879683 270.422
7.3298326 -1.9896919 270.50421
7.5603042 -1.9709959 270.57465
7.7228498 -1.9644673 270.61838
7.9201975 -1.9132057 270.66571
8.0801744 -1.8849082 270.72253
8.2362156 -1.7850468 270.72742
8.3574114 -1.7749016 270.84155
1.0775576 -1.6879975 270.69034
1.1717733 -1.7410482 270.5654
3.388135 -1.661759 270.5018
3.5884967 -1.7058929 270.58185
3.7289033 -1.7087817 270.67685
3.8354464 -1.6754184 270.72824
5.3997531 -1.5647223 270.85544
5.5706892 -1.6692665 270.74661
5.6815152 -1.6970315 270.6506
5.7853932 -1.7162703 270.59277
7.9181972 -1.8183551 270.56357
8.1165867 -1.7846022 270.63068
8.3119593 -1.7054859 270.70416
8.4435377 -1.626559 270.73553
1.0993103 -1.5024325 270.67792
1.1976985 -1.5212114 270.57983
3.574096 -1.5808098 270.52908
3.7474782 -1.5040045 270.60214
3.8892524 -1.4916538 270.71234
3.9797356 -1.4273053 270.77438
5.4218121 -1.4124044 270.79477
5.5654402 -1.4892393 270.70129
5.6437516 -1.5178268 270.65073
5.8321619 -1.540581 270.53244
8.5023518 -1.5142244 270.69519
8.5929575 -1.4371545 270.71533
0.77390248 -1.1999687 270.78232
0.92454797 -1.2924402 270.73578
1.0494312 -1.3236549 270.67273
1.1648211 -1.2759396 270.55594
3.9230633 -1.3699737 270.71957
3.9882271 -1.2993962 270.76352
5.2783027 -1.293085 270.87109
5.3888521 -1.2861413 270.78088
5.534781 -1.3196601 270.68192
5.6148624 -1.3262632 270.61829
5.8012486 -1.4225208 270.51257
8.6844635 -1.2959292 270.73923
0.43876231 -0.9839099 270.85532
0.57459182 -1.0316001 270.79269
0.72261882 -1.0789312 270.72784
0.88005877 -1.1543539 270.66449
1.022107 -1.194854 270.61008
3.347765 -0.96743196 270.57297
3.5494802 -0.98863685 270.62173
3.6910064 -1.041453 270.65082
3.8785365 -1.122757 270.70233
3.9699256 -1.1659725 270.76346
5.2499104 -1.1611062 270.88504
5.3721728 -1.149917 270.78189
5.5023599 -1.108989 270.69382
5.6279287 -1.087568 270.60617
5.7474337 -1.115338 270.5239
8.6666021 -1.155758 270.57416
8.736805 -1.1177812 270.69818
8.765604 -1.1062008 270.74545
0.43847257 -0.83435673 270.81033
0.53978997 -0.87489921 270.74847
0.69069493 -0.92317218 270.68222
0.79499906 -0.96522957 270.60587
2.9328234 -0.78407735 270.61508
3.1386776 -0.84251148 270.66602
3.317596 -0.87984562 270.69284
3.5174708 -0.90300822 270.72147
3.7003827 -0.95283526 270.74457
3.8298843 -1.0089154 270.74417
5.4296021 -0.81914079 270.79056
5.5307136 -0.89646822 270.69748
5.6289248 -0.86745507 270.63925
5.7809672 -0.82142812 270.53519
8.7676821 -0.90809846 270.65848
8.8050947 -0.89700669 270.7438
0.40964076 -0.77049643 270.81952
0.52570045 -0.69813687 270.73209
0.6578421 -0.67912638 270.63367
2.6189029 -0.60545033 270.53708
2.7412972 -0.62201989 270.61673
2.9130151 -0.698686 270.68658
3.088392 -0.75745523 270.71509
5.4029746 -0.74270815 270.82355
5.5330005 -0.7279582 270.73166
5.6469989 -0.67298281 270.64554
5.7641554 -0.65499258 270.55655
8.7987986 -0.71487248 270.64713
8.8570852 -0.63662583 270.73315
0.36563823 -0.42869714 270.76672
0.49281675 -0.49674916 270.71149
0.63791776 -0.50678533 270.61905
0.84439152 -0.50117075 270.51749
2.5707448 -0.48855448 270.54129
2.7396321 -0.49332345 270.64697
2.8374267 -0.44516146 270.69308
5.4004059 -0.44875929 270.82245
5.5180144 -0.48935312 270.73627
5.6472707 -0.508214 270.63354
5.7733579 -0.49174476 270.53906
8.8657808 -0.48676524 270.70291
0.32374331 -0.29010943 270.75421
0.48212236 -0.31559423 270.66281
0.58799481 -0.32937986 270.61343
2.6229126 -0.38386136 270.5528
2.7527869 -0.37981695 270.62875
2.9014456 -0.30779549 270.69424
3.0506418 -0.24176477 270.76666
3.1638923 -0.22198541 270.83948
5.2468591 -0.20094475 270.92538
5.4123387 -0.30942169 270.81067
5.5200291 -0.294734 270.73309
5.6376204 -0.34016559 270.64072
8.8888397 -0.29071534 270.702
8.9345684 -0.27254322 270.80777
0.01973778 -0.017744061 270.8316
0.14935906 -0.055422213 270.75763
0.30673924 -0.11960195 270.689
0.44374204 -0.15876374 270.63144
2.7543771 -0.20305103 270.57233
2.8932676 -0.16083901 270.63242
3.0698888 -0.088687398 270.72961
3.1918991 -0.063374035 270.81738
5.3842015 -0.1066991 270.84695
5.5425916 -0.12027547 270.73486
5.6637521 -0.057697762 270.65338
5.772018 -0.059493601 270.58093
8.8972902 -0.10046663 270.69138
-0.15354885 0.15239435 270.88452
-0.043306012 0.11226777 270.81808
0.13882029 0.10384977 270.72665
0.28187561 0.11604747 270.63809
0.40828896 0.079841666 270.57724
2.9344716 0.13420829 270.62601
3.0741897 0.092619404 270.72888
3.2103643 0.043785386 270.81482
5.4424314 -0.016821215 270.83667
5.5887909 0.048852336 270.78152
5.7197495 0.086933576 270.70819
5.8817153 0.17494324 270.65814
8.887496 0.096789755 270.70453
-0.16266143 0.28774181 270.86441
-0.053751692 0.33277708 270.79675
0.11110974 0.30328447 270.72369
0.29445732 0.30445385 270.63425
0.38068688 0.30123597 270.59396
2.7913346 0.37534946 270.6185
2.9100246 0.32708129 270.67926
3.0340672 0.31726894 270.76205
3.1793754 0.31418377 270.86227
5.7983532 0.20819904 270.76349
5.9157801 0.25738922 270.73666
6.096889 0.31523594 270.69052
